ply
format ascii 1.0
comment Generated by draco-io
element vertex 1723
property float x
property float y
property float z
end_header
0.444691 0.296636 0.000000
0.472407 0.294469 0.000000
0.500111 0.292210 0.000000
0.527803 0.289867 0.000000
0.555485 0.287444 0.000000
0.583156 0.284949 0.000000
0.610819 0.282387 0.000000
0.638473 0.279764 0.000000
0.666120 0.277086 0.000000
0.693760 0.274360 0.000000
0.721395 0.271592 0.000000
0.749024 0.268787 0.000000
0.776649 0.265951 0.000000
0.804271 0.263092 0.000000
0.831891 0.260214 0.000000
0.859509 0.257324 0.000000
-0.854100 0.280059 0.000000
-0.826689 0.283255 0.000000
-0.799276 0.286438 0.000000
-0.771860 0.289600 0.000000
-0.744439 0.292736 0.000000
-0.717013 0.295837 0.000000
-0.689580 0.298897 0.000000
-0.662140 0.301910 0.000000
-0.634691 0.304869 0.000000
-0.607233 0.307766 0.000000
-0.579764 0.310596 0.000000
-0.552283 0.313351 0.000000
-0.524789 0.316024 0.000000
-0.497282 0.318609 0.000000
-0.469759 0.321099 0.000000
-0.442220 0.323486 0.000000
-0.414664 0.325766 0.000000
-0.387093 0.327932 0.000000
-0.359506 0.329980 0.000000
-0.331905 0.331905 0.000000
-0.304292 0.333703 0.000000
-0.276667 0.335370 0.000000
-0.249030 0.336899 0.000000
-0.221385 0.338287 0.000000
-0.193730 0.339530 0.000000
-0.166069 0.340622 0.000000
-0.138400 0.341558 0.000000
-0.110727 0.342335 0.000000
-0.083049 0.342947 0.000000
-0.055368 0.343390 0.000000
-0.027684 0.343659 0.000000
0.000000 0.343750 0.000000
0.027684 0.343659 0.000000
0.055368 0.343390 0.000000
0.083049 0.342947 0.000000
0.110727 0.342335 0.000000
0.138400 0.341558 0.000000
0.166069 0.340622 0.000000
0.193730 0.339530 0.000000
0.221385 0.338287 0.000000
0.249030 0.336899 0.000000
0.276666 0.335370 0.000000
0.304292 0.333703 0.000000
0.331905 0.331905 0.000000
0.359506 0.329980 0.000000
0.387093 0.327932 0.000000
0.414664 0.325766 0.000000
0.442220 0.323486 0.000000
0.469759 0.321099 0.000000
0.497282 0.318609 0.000000
0.524789 0.316024 0.000000
0.552283 0.313351 0.000000
0.579764 0.310596 0.000000
0.607233 0.307766 0.000000
0.634691 0.304869 0.000000
0.662140 0.301910 0.000000
0.689580 0.298897 0.000000
0.717013 0.295837 0.000000
0.744439 0.292736 0.000000
0.771860 0.289600 0.000000
0.799276 0.286438 0.000000
0.826689 0.283255 0.000000
0.854100 0.280059 0.000000
-0.848225 0.302622 0.000000
-0.821041 0.306136 0.000000
-0.793855 0.309635 0.000000
-0.766665 0.313112 0.000000
-0.739469 0.316558 0.000000
-0.712267 0.319966 0.000000
-0.685056 0.323329 0.000000
-0.657836 0.326639 0.000000
-0.630604 0.329889 0.000000
-0.603361 0.333070 0.000000
-0.576104 0.336176 0.000000
-0.548832 0.339199 0.000000
-0.521543 0.342130 0.000000
-0.494237 0.344964 0.000000
-0.466912 0.347692 0.000000
-0.439566 0.350306 0.000000
-0.412199 0.352799 0.000000
-0.384811 0.355167 0.000000
-0.357404 0.357404 0.000000
-0.329980 0.359506 0.000000
-0.302539 0.361467 0.000000
-0.275083 0.363283 0.000000
-0.247614 0.364950 0.000000
-0.220132 0.366461 0.000000
-0.192639 0.367812 0.000000
-0.165137 0.368999 0.000000
-0.137627 0.370017 0.000000
-0.110110 0.370861 0.000000
-0.082587 0.371525 0.000000
-0.055060 0.372006 0.000000
-0.027531 0.372297 0.000000
0.000000 0.372396 0.000000
0.027531 0.372297 0.000000
0.055060 0.372006 0.000000
0.082587 0.371525 0.000000
0.110110 0.370860 0.000000
0.137627 0.370017 0.000000
0.165137 0.368999 0.000000
0.192639 0.367812 0.000000
0.220132 0.366461 0.000000
0.247614 0.364950 0.000000
0.275083 0.363283 0.000000
0.302539 0.361467 0.000000
0.329980 0.359506 0.000000
0.357404 0.357404 0.000000
0.384811 0.355167 0.000000
0.412199 0.352799 0.000000
0.439566 0.350306 0.000000
0.466912 0.347692 0.000000
0.494237 0.344964 0.000000
0.521543 0.342130 0.000000
0.548832 0.339199 0.000000
0.576104 0.336176 0.000000
0.603361 0.333070 0.000000
0.630604 0.329889 0.000000
0.657836 0.326639 0.000000
0.685056 0.323329 0.000000
0.712267 0.319966 0.000000
0.739469 0.316558 0.000000
0.766665 0.313112 0.000000
0.793855 0.309635 0.000000
0.821041 0.306136 0.000000
0.848225 0.302622 0.000000
-0.841882 0.324999 0.000000
-0.814948 0.328844 0.000000
-0.788010 0.332671 0.000000
-0.761067 0.336474 0.000000
-0.734118 0.340243 0.000000
-0.707159 0.343970 0.000000
-0.680191 0.347646 0.000000
-0.653211 0.351265 0.000000
-0.626217 0.354816 0.000000
-0.599207 0.358291 0.000000
-0.572181 0.361683 0.000000
-0.545136 0.364983 0.000000
-0.518070 0.368182 0.000000
-0.490982 0.371272 0.000000
-0.463871 0.374245 0.000000
-0.436734 0.377092 0.000000
-0.409570 0.379806 0.000000
-0.382380 0.382381 0.000000
-0.355167 0.384811 0.000000
-0.327932 0.387093 0.000000
-0.300676 0.389220 0.000000
-0.273402 0.391189 0.000000
-0.246110 0.392994 0.000000
-0.218803 0.394630 0.000000
-0.191482 0.396092 0.000000
-0.164150 0.397375 0.000000
-0.136807 0.398475 0.000000
-0.109456 0.399386 0.000000
-0.082098 0.400103 0.000000
-0.054735 0.400621 0.000000
-0.027368 0.400936 0.000000
0.000000 0.401042 0.000000
0.027368 0.400936 0.000000
0.054735 0.400621 0.000000
0.082098 0.400103 0.000000
0.109456 0.399386 0.000000
0.136807 0.398475 0.000000
0.164150 0.397375 0.000000
0.191482 0.396092 0.000000
0.218803 0.394630 0.000000
0.246110 0.392994 0.000000
0.273402 0.391189 0.000000
0.300676 0.389220 0.000000
0.327932 0.387093 0.000000
0.355167 0.384811 0.000000
0.382381 0.382381 0.000000
0.409570 0.379806 0.000000
0.436734 0.377092 0.000000
0.463871 0.374245 0.000000
0.490982 0.371272 0.000000
0.518070 0.368182 0.000000
0.545136 0.364983 0.000000
0.572181 0.361683 0.000000
0.599207 0.358291 0.000000
0.626217 0.354816 0.000000
0.653211 0.351265 0.000000
0.680191 0.347646 0.000000
0.707159 0.343970 0.000000
0.734118 0.340243 0.000000
0.761067 0.336474 0.000000
0.788010 0.332671 0.000000
0.814948 0.328844 0.000000
0.841882 0.324999 0.000000
-0.835074 0.347176 0.000000
-0.808410 0.351364 0.000000
-0.781743 0.355534 0.000000
-0.755069 0.359675 0.000000
-0.728386 0.363780 0.000000
-0.701694 0.367838 0.000000
-0.674988 0.371841 0.000000
-0.648268 0.375779 0.000000
-0.621531 0.379643 0.000000
-0.594776 0.383424 0.000000
-0.567999 0.387112 0.000000
-0.541200 0.390699 0.000000
-0.514375 0.394174 0.000000
-0.487523 0.397530 0.000000
-0.460641 0.400756 0.000000
-0.433729 0.403843 0.000000
-0.406783 0.406783 0.000000
-0.379806 0.409570 0.000000
-0.352799 0.412199 0.000000
-0.325766 0.414664 0.000000
-0.298707 0.416962 0.000000
-0.271625 0.419086 0.000000
-0.244522 0.421032 0.000000
-0.217401 0.422795 0.000000
-0.190262 0.424369 0.000000
-0.163109 0.425750 0.000000
-0.135944 0.426932 0.000000
-0.108767 0.427910 0.000000
-0.081583 0.428680 0.000000
-0.054392 0.429236 0.000000
-0.027197 0.429574 0.000000
0.000000 0.429688 0.000000
0.027197 0.429574 0.000000
0.054392 0.429237 0.000000
0.081583 0.428680 0.000000
0.108767 0.427910 0.000000
0.135944 0.426932 0.000000
0.163109 0.425750 0.000000
0.190262 0.424369 0.000000
0.217401 0.422795 0.000000
0.244522 0.421032 0.000000
0.271625 0.419086 0.000000
0.298707 0.416962 0.000000
0.325766 0.414664 0.000000
0.352799 0.412199 0.000000
0.379806 0.409570 0.000000
0.406783 0.406783 0.000000
0.433729 0.403843 0.000000
0.460641 0.400756 0.000000
0.487523 0.397530 0.000000
0.514375 0.394174 0.000000
0.541200 0.390699 0.000000
0.567999 0.387112 0.000000
0.594776 0.383424 0.000000
0.621531 0.379643 0.000000
0.648268 0.375779 0.000000
0.674988 0.371841 0.000000
0.701694 0.367838 0.000000
0.728386 0.363780 0.000000
0.755069 0.359675 0.000000
0.781743 0.355533 0.000000
0.808410 0.351364 0.000000
0.835074 0.347176 0.000000
-0.827799 0.369139 0.000000
-0.801429 0.373684 0.000000
-0.775054 0.378209 0.000000
-0.748671 0.382704 0.000000
-0.722278 0.387158 0.000000
-0.695872 0.391561 0.000000
-0.669451 0.395903 0.000000
-0.643012 0.400174 0.000000
-0.616553 0.404363 0.000000
-0.590071 0.408461 0.000000
-0.563564 0.412457 0.000000
-0.537028 0.416341 0.000000
-0.510462 0.420103 0.000000
-0.483863 0.423733 0.000000
-0.457228 0.427221 0.000000
-0.430556 0.430556 0.000000
-0.403843 0.433729 0.000000
-0.377092 0.436734 0.000000
-0.350306 0.439566 0.000000
-0.323486 0.442220 0.000000
-0.296636 0.444691 0.000000
-0.269758 0.446974 0.000000
-0.242855 0.449064 0.000000
-0.215929 0.450955 0.000000
-0.188982 0.452643 0.000000
-0.162018 0.454122 0.000000
-0.135038 0.455388 0.000000
-0.108046 0.456434 0.000000
-0.081043 0.457258 0.000000
-0.054033 0.457852 0.000000
-0.027018 0.458212 0.000000
0.000000 0.458333 0.000000
0.027018 0.458212 0.000000
0.054033 0.457852 0.000000
0.081043 0.457258 0.000000
0.108046 0.456434 0.000000
0.135038 0.455388 0.000000
0.162018 0.454122 0.000000
0.188982 0.452643 0.000000
0.215929 0.450955 0.000000
0.242855 0.449064 0.000000
0.269758 0.446974 0.000000
0.296636 0.444691 0.000000
0.323486 0.442220 0.000000
0.350306 0.439566 0.000000
0.377092 0.436734 0.000000
0.403843 0.433729 0.000000
0.430556 0.430556 0.000000
0.457228 0.427221 0.000000
0.483863 0.423733 0.000000
0.510462 0.420103 0.000000
0.537028 0.416341 0.000000
0.563563 0.412457 0.000000
0.590071 0.408461 0.000000
0.616553 0.404363 0.000000
0.643012 0.400174 0.000000
0.669451 0.395903 0.000000
0.695872 0.391561 0.000000
0.722278 0.387158 0.000000
0.748671 0.382704 0.000000
0.775054 0.378209 0.000000
0.801429 0.373684 0.000000
0.827799 0.369139 0.000000
-0.820060 0.390873 0.000000
-0.794006 0.395791 0.000000
-0.767946 0.400688 0.000000
-0.741877 0.405551 0.000000
-0.715796 0.410369 0.000000
-0.689699 0.415131 0.000000
-0.663584 0.419826 0.000000
-0.637448 0.424443 0.000000
-0.611287 0.428971 0.000000
-0.585099 0.433398 0.000000
-0.558880 0.437714 0.000000
-0.532627 0.441907 0.000000
-0.506338 0.445966 0.000000
-0.480009 0.449880 0.000000
-0.453638 0.453638 0.000000
-0.427221 0.457228 0.000000
-0.400756 0.460641 0.000000
-0.374245 0.463871 0.000000
-0.347692 0.466912 0.000000
-0.321099 0.469759 0.000000
-0.294469 0.472407 0.000000
-0.267806 0.474852 0.000000
-0.241112 0.477088 0.000000
-0.214391 0.479110 0.000000
-0.187645 0.480913 0.000000
-0.160879 0.482492 0.000000
-0.134093 0.483842 0.000000
-0.107293 0.484958 0.000000
-0.080480 0.485835 0.000000
-0.053659 0.486467 0.000000
-0.026831 0.486850 0.000000
0.000000 0.486979 0.000000
0.026831 0.486850 0.000000
0.053659 0.486467 0.000000
0.080480 0.485835 0.000000
0.107293 0.484958 0.000000
0.134093 0.483842 0.000000
0.160879 0.482492 0.000000
0.187645 0.480913 0.000000
0.214391 0.479110 0.000000
0.241112 0.477088 0.000000
0.267806 0.474852 0.000000
0.294469 0.472407 0.000000
0.321099 0.469759 0.000000
0.347692 0.466912 0.000000
0.374245 0.463871 0.000000
0.400756 0.460641 0.000000
0.427221 0.457228 0.000000
0.453638 0.453638 0.000000
0.480009 0.449880 0.000000
0.506338 0.445966 0.000000
0.532627 0.441907 0.000000
0.558880 0.437714 0.000000
0.585099 0.433398 0.000000
0.611287 0.428971 0.000000
0.637448 0.424443 0.000000
0.663584 0.419826 0.000000
0.689699 0.415131 0.000000
0.715796 0.410369 0.000000
0.741877 0.405550 0.000000
0.767946 0.400688 0.000000
0.794006 0.395791 0.000000
0.820059 0.390873 0.000000
-0.811857 0.412365 0.000000
-0.786144 0.417675 0.000000
-0.760425 0.422960 0.000000
-0.734694 0.428209 0.000000
-0.708949 0.433408 0.000000
-0.683185 0.438546 0.000000
-0.657399 0.443610 0.000000
-0.631587 0.448588 0.000000
-0.605746 0.453469 0.000000
-0.579871 0.458239 0.000000
-0.553961 0.462886 0.000000
-0.528010 0.467399 0.000000
-0.502015 0.471765 0.000000
-0.475973 0.475973 0.000000
-0.449880 0.480009 0.000000
-0.423733 0.483863 0.000000
-0.397530 0.487523 0.000000
-0.371272 0.490982 0.000000
-0.344964 0.494237 0.000000
-0.318609 0.497282 0.000000
-0.292210 0.500111 0.000000
-0.265772 0.502721 0.000000
-0.239298 0.505105 0.000000
-0.212791 0.507260 0.000000
-0.186255 0.509180 0.000000
-0.159694 0.510860 0.000000
-0.133112 0.512295 0.000000
-0.106511 0.513481 0.000000
-0.079896 0.514411 0.000000
-0.053270 0.515082 0.000000
-0.026637 0.515489 0.000000
0.000000 0.515625 0.000000
0.026637 0.515489 0.000000
0.053270 0.515082 0.000000
0.079896 0.514412 0.000000
0.106511 0.513481 0.000000
0.133112 0.512295 0.000000
0.159694 0.510860 0.000000
0.186255 0.509180 0.000000
0.212791 0.507260 0.000000
0.239298 0.505105 0.000000
0.265772 0.502721 0.000000
0.292210 0.500111 0.000000
0.318609 0.497282 0.000000
0.344964 0.494237 0.000000
0.371272 0.490982 0.000000
0.397530 0.487523 0.000000
0.423733 0.483863 0.000000
0.449880 0.480009 0.000000
0.475973 0.475973 0.000000
0.502015 0.471765 0.000000
0.528009 0.467399 0.000000
0.553961 0.462886 0.000000
0.579871 0.458239 0.000000
0.605746 0.453469 0.000000
0.631587 0.448589 0.000000
0.657399 0.443610 0.000000
0.683185 0.438546 0.000000
0.708949 0.433408 0.000000
0.734694 0.428209 0.000000
0.760425 0.422960 0.000000
0.786144 0.417675 0.000000
0.811857 0.412365 0.000000
-0.803193 0.433604 0.000000
-0.777850 0.439326 0.000000
-0.752498 0.445021 0.000000
-0.727132 0.450675 0.000000
-0.701749 0.456274 0.000000
-0.676343 0.461806 0.000000
-0.650910 0.467257 0.000000
-0.625445 0.472612 0.000000
-0.599945 0.477860 0.000000
-0.574404 0.482986 0.000000
-0.548820 0.487977 0.000000
-0.523188 0.492821 0.000000
-0.497505 0.497505 0.000000
-0.471765 0.502015 0.000000
-0.445966 0.506338 0.000000
-0.420103 0.510462 0.000000
-0.394174 0.514375 0.000000
-0.368182 0.518070 0.000000
-0.342130 0.521543 0.000000
-0.316024 0.524789 0.000000
-0.289867 0.527803 0.000000
-0.263663 0.530581 0.000000
-0.237417 0.533117 0.000000
-0.211133 0.535406 0.000000
-0.184816 0.537444 0.000000
-0.158468 0.539226 0.000000
-0.132096 0.540748 0.000000
-0.105702 0.542003 0.000000
-0.079291 0.542988 0.000000
-0.052868 0.543697 0.000000
-0.026436 0.544127 0.000000
0.000000 0.544271 0.000000
0.026436 0.544127 0.000000
0.052868 0.543698 0.000000
0.079291 0.542988 0.000000
0.105702 0.542003 0.000000
0.132096 0.540748 0.000000
0.158468 0.539226 0.000000
0.184816 0.537444 0.000000
0.211133 0.535406 0.000000
0.237417 0.533117 0.000000
0.263663 0.530581 0.000000
0.289867 0.527803 0.000000
0.316024 0.524789 0.000000
0.342130 0.521543 0.000000
0.368182 0.518070 0.000000
0.394174 0.514375 0.000000
0.420103 0.510462 0.000000
0.445966 0.506338 0.000000
0.471765 0.502015 0.000000
0.497505 0.497505 0.000000
0.523188 0.492821 0.000000
0.548820 0.487977 0.000000
0.574404 0.482986 0.000000
0.599945 0.477860 0.000000
0.625445 0.472612 0.000000
0.650909 0.467257 0.000000
0.676343 0.461806 0.000000
0.701749 0.456274 0.000000
0.727132 0.450675 0.000000
0.752498 0.445021 0.000000
0.777850 0.439326 0.000000
0.803193 0.433604 0.000000
-0.794072 0.454577 0.000000
-0.769127 0.460734 0.000000
-0.744172 0.466861 0.000000
-0.719200 0.472943 0.000000
-0.694206 0.478965 0.000000
-0.669184 0.484911 0.000000
-0.644129 0.490767 0.000000
-0.619036 0.496518 0.000000
-0.593898 0.502148 0.000000
-0.568712 0.507644 0.000000
-0.543473 0.512992 0.000000
-0.518178 0.518178 0.000000
-0.492821 0.523188 0.000000
-0.467399 0.528009 0.000000
-0.441907 0.532627 0.000000
-0.416341 0.537028 0.000000
-0.390699 0.541200 0.000000
-0.364983 0.545136 0.000000
-0.339199 0.548832 0.000000
-0.313351 0.552283 0.000000
-0.287444 0.555485 0.000000
-0.261484 0.558433 0.000000
-0.235475 0.561122 0.000000
-0.209422 0.563548 0.000000
-0.183330 0.565706 0.000000
-0.157203 0.567591 0.000000
-0.131047 0.569199 0.000000
-0.104867 0.570525 0.000000
-0.078668 0.571564 0.000000
-0.052453 0.572313 0.000000
-0.026229 0.572765 0.000000
0.000000 0.572917 0.000000
0.026229 0.572765 0.000000
0.052453 0.572313 0.000000
0.078668 0.571564 0.000000
0.104867 0.570525 0.000000
0.131047 0.569199 0.000000
0.157203 0.567591 0.000000
0.183330 0.565706 0.000000
0.209422 0.563548 0.000000
0.235475 0.561122 0.000000
0.261484 0.558433 0.000000
0.287444 0.555485 0.000000
0.313351 0.552283 0.000000
0.339199 0.548832 0.000000
0.364983 0.545136 0.000000
0.390699 0.541200 0.000000
0.416341 0.537028 0.000000
0.441907 0.532627 0.000000
0.467399 0.528009 0.000000
0.492821 0.523188 0.000000
0.518178 0.518178 0.000000
0.543473 0.512992 0.000000
0.568712 0.507644 0.000000
0.593898 0.502148 0.000000
0.619036 0.496518 0.000000
0.644129 0.490767 0.000000
0.669184 0.484911 0.000000
0.694206 0.478965 0.000000
0.719200 0.472943 0.000000
0.744172 0.466861 0.000000
0.769127 0.460734 0.000000
0.794072 0.454577 0.000000
-0.784494 0.475271 0.000000
-0.759981 0.481890 0.000000
-0.735453 0.488476 0.000000
-0.710906 0.495011 0.000000
-0.686331 0.501478 0.000000
-0.661721 0.507861 0.000000
-0.637071 0.514143 0.000000
-0.612373 0.520307 0.000000
-0.587621 0.526337 0.000000
-0.562809 0.532217 0.000000
-0.537934 0.537934 0.000000
-0.512992 0.543474 0.000000
-0.487977 0.548820 0.000000
-0.462886 0.553961 0.000000
-0.437714 0.558880 0.000000
-0.412457 0.563563 0.000000
-0.387112 0.567999 0.000000
-0.361683 0.572181 0.000000
-0.336176 0.576104 0.000000
-0.310596 0.579764 0.000000
-0.284949 0.583157 0.000000
-0.259240 0.586277 0.000000
-0.233476 0.589122 0.000000
-0.207661 0.591686 0.000000
-0.181801 0.593965 0.000000
-0.155902 0.595954 0.000000
-0.129970 0.597649 0.000000
-0.104009 0.599046 0.000000
-0.078027 0.600141 0.000000
-0.052027 0.600928 0.000000
-0.026016 0.601403 0.000000
0.000000 0.601563 0.000000
0.026016 0.601403 0.000000
0.052027 0.600928 0.000000
0.078027 0.600140 0.000000
0.104009 0.599046 0.000000
0.129970 0.597649 0.000000
0.155902 0.595954 0.000000
0.181801 0.593965 0.000000
0.207661 0.591686 0.000000
0.233476 0.589122 0.000000
0.259240 0.586277 0.000000
0.284949 0.583157 0.000000
0.310596 0.579764 0.000000
0.336176 0.576104 0.000000
0.361683 0.572181 0.000000
0.387112 0.567999 0.000000
0.412457 0.563563 0.000000
0.437714 0.558880 0.000000
0.462886 0.553961 0.000000
0.487977 0.548820 0.000000
0.512992 0.543474 0.000000
0.537934 0.537934 0.000000
0.562809 0.532217 0.000000
0.587621 0.526337 0.000000
0.612373 0.520307 0.000000
0.637071 0.514143 0.000000
0.661721 0.507861 0.000000
0.686331 0.501478 0.000000
0.710906 0.495011 0.000000
0.735453 0.488476 0.000000
0.759980 0.481891 0.000000
0.784494 0.475271 0.000000
-0.774463 0.495675 0.000000
-0.750415 0.502785 0.000000
-0.726350 0.509857 0.000000
-0.702259 0.516872 0.000000
-0.678134 0.523811 0.000000
-0.653967 0.530656 0.000000
-0.629749 0.537386 0.000000
-0.605472 0.543984 0.000000
-0.581127 0.550430 0.000000
-0.556710 0.556710 0.000000
-0.532217 0.562809 0.000000
-0.507644 0.568712 0.000000
-0.482986 0.574404 0.000000
-0.458239 0.579871 0.000000
-0.433398 0.585099 0.000000
-0.408461 0.590071 0.000000
-0.383424 0.594776 0.000000
-0.358291 0.599207 0.000000
-0.333070 0.603361 0.000000
-0.307766 0.607233 0.000000
-0.282387 0.610819 0.000000
-0.256937 0.614115 0.000000
-0.231424 0.617117 0.000000
-0.205854 0.619820 0.000000
-0.180233 0.622221 0.000000
-0.154568 0.624315 0.000000
-0.128865 0.626099 0.000000
-0.103130 0.627567 0.000000
-0.077370 0.628716 0.000000
-0.051590 0.629542 0.000000
-0.025798 0.630041 0.000000
0.000000 0.630208 0.000000
0.025798 0.630041 0.000000
0.051590 0.629543 0.000000
0.077370 0.628716 0.000000
0.103130 0.627567 0.000000
0.128865 0.626099 0.000000
0.154568 0.624315 0.000000
0.180233 0.622221 0.000000
0.205854 0.619820 0.000000
0.231424 0.617117 0.000000
0.256937 0.614115 0.000000
0.282387 0.610819 0.000000
0.307766 0.607233 0.000000
0.333070 0.603361 0.000000
0.358291 0.599207 0.000000
0.383424 0.594776 0.000000
0.408461 0.590071 0.000000
0.433398 0.585099 0.000000
0.458239 0.579871 0.000000
0.482986 0.574404 0.000000
0.507644 0.568712 0.000000
0.532217 0.562809 0.000000
0.556710 0.556710 0.000000
0.581127 0.550430 0.000000
0.605472 0.543984 0.000000
0.629749 0.537386 0.000000
0.653967 0.530656 0.000000
0.678134 0.523811 0.000000
0.702259 0.516872 0.000000
0.726350 0.509857 0.000000
0.750415 0.502785 0.000000
0.774463 0.495675 0.000000
-0.763981 0.515775 0.000000
-0.740435 0.523408 0.000000
-0.716867 0.530998 0.000000
-0.693268 0.538524 0.000000
-0.669627 0.545963 0.000000
-0.645934 0.553295 0.000000
-0.622177 0.560498 0.000000
-0.598346 0.567551 0.000000
-0.574432 0.574432 0.000000
-0.550430 0.581127 0.000000
-0.526337 0.587621 0.000000
-0.502148 0.593898 0.000000
-0.477860 0.599945 0.000000
-0.453469 0.605746 0.000000
-0.428971 0.611287 0.000000
-0.404363 0.616553 0.000000
-0.379643 0.621531 0.000000
-0.354816 0.626217 0.000000
-0.329889 0.630604 0.000000
-0.304869 0.634691 0.000000
-0.279764 0.638473 0.000000
-0.254580 0.641946 0.000000
-0.229325 0.645107 0.000000
-0.204006 0.647951 0.000000
-0.178630 0.650475 0.000000
-0.153204 0.652675 0.000000
-0.127736 0.654547 0.000000
-0.102231 0.656088 0.000000
-0.076698 0.657292 0.000000
-0.051144 0.658157 0.000000
-0.025576 0.658679 0.000000
0.000000 0.658854 0.000000
0.025576 0.658679 0.000000
0.051144 0.658157 0.000000
0.076698 0.657292 0.000000
0.102231 0.656088 0.000000
0.127736 0.654547 0.000000
0.153204 0.652675 0.000000
0.178630 0.650475 0.000000
0.204006 0.647951 0.000000
0.229325 0.645107 0.000000
0.254580 0.641946 0.000000
0.279764 0.638473 0.000000
0.304869 0.634691 0.000000
0.329889 0.630604 0.000000
0.354816 0.626217 0.000000
0.379643 0.621531 0.000000
0.404363 0.616553 0.000000
0.428971 0.611287 0.000000
0.453469 0.605746 0.000000
0.477860 0.599945 0.000000
0.502148 0.593898 0.000000
0.526337 0.587621 0.000000
0.550430 0.581127 0.000000
0.574432 0.574432 0.000000
0.598346 0.567551 0.000000
0.622177 0.560498 0.000000
0.645934 0.553295 0.000000
0.669627 0.545963 0.000000
0.693268 0.538524 0.000000
0.716867 0.530998 0.000000
0.740434 0.523408 0.000000
0.763981 0.515775 0.000000
-0.753050 0.535559 0.000000
-0.730045 0.543750 0.000000
-0.707013 0.551892 0.000000
-0.683943 0.559960 0.000000
-0.660821 0.567931 0.000000
-0.637633 0.575779 0.000000
-0.614367 0.583480 0.000000
-0.591010 0.591010 0.000000
-0.567551 0.598346 0.000000
-0.543984 0.605472 0.000000
-0.520307 0.612373 0.000000
-0.496518 0.619036 0.000000
-0.472612 0.625445 0.000000
-0.448589 0.631587 0.000000
-0.424443 0.637448 0.000000
-0.400174 0.643012 0.000000
-0.375779 0.648268 0.000000
-0.351265 0.653211 0.000000
-0.326639 0.657836 0.000000
-0.301910 0.662140 0.000000
-0.277086 0.666120 0.000000
-0.252175 0.669772 0.000000
-0.227184 0.673093 0.000000
-0.202121 0.676080 0.000000
-0.176995 0.678728 0.000000
-0.151814 0.681034 0.000000
-0.126584 0.682995 0.000000
-0.101315 0.684608 0.000000
-0.076014 0.685868 0.000000
-0.050689 0.686772 0.000000
-0.025349 0.687318 0.000000
0.000000 0.687500 0.000000
0.025349 0.687317 0.000000
0.050689 0.686772 0.000000
0.076014 0.685868 0.000000
0.101315 0.684608 0.000000
0.126584 0.682995 0.000000
0.151814 0.681034 0.000000
0.176995 0.678728 0.000000
0.202121 0.676080 0.000000
0.227184 0.673093 0.000000
0.252175 0.669772 0.000000
0.277086 0.666120 0.000000
0.301910 0.662140 0.000000
0.326639 0.657836 0.000000
0.351265 0.653211 0.000000
0.375779 0.648268 0.000000
0.400174 0.643012 0.000000
0.424443 0.637448 0.000000
0.448589 0.631587 0.000000
0.472612 0.625445 0.000000
0.496518 0.619036 0.000000
0.520307 0.612373 0.000000
0.543984 0.605472 0.000000
0.567551 0.598346 0.000000
0.591010 0.591010 0.000000
0.614367 0.583480 0.000000
0.637633 0.575779 0.000000
0.660821 0.567931 0.000000
0.683943 0.559960 0.000000
0.707013 0.551892 0.000000
0.730045 0.543750 0.000000
0.753050 0.535559 0.000000
-0.741681 0.555024 0.000000
-0.719257 0.563809 0.000000
-0.696801 0.572538 0.000000
-0.674297 0.581183 0.000000
-0.651729 0.589717 0.000000
-0.629081 0.598111 0.000000
-0.606337 0.606337 0.000000
-0.583480 0.614367 0.000000
-0.560498 0.622177 0.000000
-0.537386 0.629749 0.000000
-0.514143 0.637071 0.000000
-0.490767 0.644129 0.000000
-0.467257 0.650910 0.000000
-0.443610 0.657399 0.000000
-0.419826 0.663584 0.000000
-0.395903 0.669451 0.000000
-0.371841 0.674988 0.000000
-0.347646 0.680191 0.000000
-0.323329 0.685056 0.000000
-0.298897 0.689580 0.000000
-0.274360 0.693760 0.000000
-0.249726 0.697593 0.000000
-0.225004 0.701076 0.000000
-0.200203 0.704206 0.000000
-0.175332 0.706979 0.000000
-0.150399 0.709392 0.000000
-0.125413 0.711443 0.000000
-0.100383 0.713127 0.000000
-0.075318 0.714443 0.000000
-0.050227 0.715387 0.000000
-0.025118 0.715956 0.000000
0.000000 0.716146 0.000000
0.025118 0.715956 0.000000
0.050227 0.715387 0.000000
0.075318 0.714443 0.000000
0.100383 0.713127 0.000000
0.125413 0.711443 0.000000
0.150399 0.709392 0.000000
0.175332 0.706979 0.000000
0.200203 0.704206 0.000000
0.225004 0.701076 0.000000
0.249726 0.697593 0.000000
0.274360 0.693760 0.000000
0.298897 0.689580 0.000000
0.323329 0.685056 0.000000
0.347646 0.680191 0.000000
0.371841 0.674988 0.000000
0.395903 0.669451 0.000000
0.419826 0.663584 0.000000
0.443610 0.657399 0.000000
0.467257 0.650910 0.000000
0.490767 0.644129 0.000000
0.514143 0.637071 0.000000
0.537386 0.629749 0.000000
0.560498 0.622177 0.000000
0.583480 0.614367 0.000000
0.606337 0.606337 0.000000
0.629081 0.598111 0.000000
0.651729 0.589717 0.000000
0.674297 0.581183 0.000000
0.696801 0.572538 0.000000
0.719257 0.563809 0.000000
0.741681 0.555024 0.000000
-0.729922 0.574202 0.000000
-0.708115 0.583614 0.000000
-0.686270 0.592962 0.000000
-0.664366 0.602215 0.000000
-0.642385 0.611340 0.000000
-0.620306 0.620306 0.000000
-0.598111 0.629081 0.000000
-0.575779 0.637633 0.000000
-0.553295 0.645934 0.000000
-0.530656 0.653967 0.000000
-0.507861 0.661721 0.000000
-0.484911 0.669184 0.000000
-0.461806 0.676343 0.000000
-0.438546 0.683185 0.000000
-0.415131 0.689699 0.000000
-0.391561 0.695872 0.000000
-0.367838 0.701694 0.000000
-0.343970 0.707159 0.000000
-0.319966 0.712267 0.000000
-0.295837 0.717013 0.000000
-0.271592 0.721395 0.000000
-0.247240 0.725410 0.000000
-0.222792 0.729056 0.000000
-0.198256 0.732329 0.000000
-0.173643 0.735228 0.000000
-0.148963 0.737749 0.000000
-0.124224 0.739889 0.000000
-0.099438 0.741647 0.000000
-0.074612 0.743019 0.000000
-0.049757 0.744002 0.000000
-0.024884 0.744594 0.000000
0.000000 0.744792 0.000000
0.024884 0.744594 0.000000
0.049757 0.744002 0.000000
0.074612 0.743019 0.000000
0.099438 0.741647 0.000000
0.124224 0.739889 0.000000
0.148963 0.737749 0.000000
0.173643 0.735228 0.000000
0.198256 0.732329 0.000000
0.222792 0.729056 0.000000
0.247240 0.725410 0.000000
0.271592 0.721395 0.000000
0.295837 0.717013 0.000000
0.319966 0.712267 0.000000
0.343970 0.707159 0.000000
0.367838 0.701694 0.000000
0.391561 0.695872 0.000000
0.415131 0.689699 0.000000
0.438546 0.683185 0.000000
0.461806 0.676343 0.000000
0.484911 0.669184 0.000000
0.507861 0.661721 0.000000
0.530656 0.653967 0.000000
0.553295 0.645934 0.000000
0.575779 0.637633 0.000000
0.598111 0.629081 0.000000
0.620306 0.620306 0.000000
0.642385 0.611340 0.000000
0.664366 0.602215 0.000000
0.686270 0.592962 0.000000
0.708115 0.583614 0.000000
0.729922 0.574202 0.000000
-0.717828 0.593134 0.000000
-0.696670 0.603201 0.000000
-0.675465 0.613195 0.000000
-0.654191 0.623082 0.000000
-0.632824 0.632824 0.000000
-0.611340 0.642385 0.000000
-0.589717 0.651729 0.000000
-0.567931 0.660821 0.000000
-0.545963 0.669627 0.000000
-0.523811 0.678134 0.000000
-0.501478 0.686331 0.000000
-0.478965 0.694206 0.000000
-0.456274 0.701749 0.000000
-0.433408 0.708949 0.000000
-0.410369 0.715795 0.000000
-0.387158 0.722278 0.000000
-0.363780 0.728386 0.000000
-0.340243 0.734118 0.000000
-0.316558 0.739469 0.000000
-0.292736 0.744439 0.000000
-0.268787 0.749024 0.000000
-0.244721 0.753223 0.000000
-0.220550 0.757032 0.000000
-0.196284 0.760451 0.000000
-0.171934 0.763476 0.000000
-0.147509 0.766105 0.000000
-0.123021 0.768336 0.000000
-0.098480 0.770166 0.000000
-0.073897 0.771594 0.000000
-0.049282 0.772617 0.000000
-0.024647 0.773232 0.000000
0.000000 0.773438 0.000000
0.024647 0.773232 0.000000
0.049282 0.772617 0.000000
0.073897 0.771594 0.000000
0.098480 0.770166 0.000000
0.123021 0.768336 0.000000
0.147509 0.766105 0.000000
0.171934 0.763476 0.000000
0.196284 0.760451 0.000000
0.220550 0.757032 0.000000
0.244721 0.753223 0.000000
0.268787 0.749024 0.000000
0.292736 0.744439 0.000000
0.316558 0.739469 0.000000
0.340243 0.734118 0.000000
0.363780 0.728386 0.000000
0.387158 0.722278 0.000000
0.410369 0.715795 0.000000
0.433408 0.708949 0.000000
0.456274 0.701749 0.000000
0.478965 0.694206 0.000000
0.501478 0.686331 0.000000
0.523811 0.678134 0.000000
0.545963 0.669627 0.000000
0.567931 0.660821 0.000000
0.589717 0.651729 0.000000
0.611340 0.642385 0.000000
0.632824 0.632824 0.000000
0.654191 0.623082 0.000000
0.675465 0.613195 0.000000
0.696670 0.603201 0.000000
0.717828 0.593134 0.000000
-0.705455 0.611860 0.000000
-0.684971 0.622606 0.000000
-0.664433 0.633270 0.000000
-0.643812 0.643812 0.000000
-0.623082 0.654191 0.000000
-0.602215 0.664366 0.000000
-0.581183 0.674297 0.000000
-0.559960 0.683943 0.000000
-0.538524 0.693268 0.000000
-0.516872 0.702259 0.000000
-0.495011 0.710906 0.000000
-0.472943 0.719200 0.000000
-0.450674 0.727132 0.000000
-0.428209 0.734694 0.000000
-0.405550 0.741877 0.000000
-0.382704 0.748671 0.000000
-0.359675 0.755069 0.000000
-0.336474 0.761067 0.000000
-0.313112 0.766665 0.000000
-0.289600 0.771860 0.000000
-0.265951 0.776649 0.000000
-0.242176 0.781032 0.000000
-0.218286 0.785007 0.000000
-0.194292 0.788571 0.000000
-0.170206 0.791723 0.000000
-0.146040 0.794460 0.000000
-0.121806 0.796782 0.000000
-0.097513 0.798685 0.000000
-0.073175 0.800169 0.000000
-0.048803 0.801231 0.000000
-0.024407 0.801870 0.000000
0.000000 0.802083 0.000000
0.024407 0.801870 0.000000
0.048803 0.801231 0.000000
0.073175 0.800169 0.000000
0.097513 0.798685 0.000000
0.121806 0.796782 0.000000
0.146040 0.794460 0.000000
0.170206 0.791723 0.000000
0.194292 0.788571 0.000000
0.218286 0.785007 0.000000
0.242176 0.781032 0.000000
0.265951 0.776649 0.000000
0.289600 0.771860 0.000000
0.313112 0.766665 0.000000
0.336474 0.761067 0.000000
0.359675 0.755069 0.000000
0.382704 0.748671 0.000000
0.405550 0.741877 0.000000
0.428209 0.734694 0.000000
0.450675 0.727132 0.000000
0.472943 0.719200 0.000000
0.495011 0.710906 0.000000
0.516872 0.702259 0.000000
0.538524 0.693268 0.000000
0.559960 0.683943 0.000000
0.581183 0.674297 0.000000
0.602215 0.664366 0.000000
0.623082 0.654191 0.000000
0.643812 0.643812 0.000000
0.664433 0.633270 0.000000
0.684971 0.622606 0.000000
0.705455 0.611861 0.000000
-0.692859 0.630423 0.000000
-0.673070 0.641866 0.000000
-0.653218 0.653218 0.000000
-0.633270 0.664433 0.000000
-0.613196 0.675465 0.000000
-0.592962 0.686270 0.000000
-0.572538 0.696801 0.000000
-0.551892 0.707013 0.000000
-0.530998 0.716867 0.000000
-0.509857 0.726350 0.000000
-0.488476 0.735453 0.000000
-0.466861 0.744172 0.000000
-0.445021 0.752498 0.000000
-0.422960 0.760425 0.000000
-0.400688 0.767946 0.000000
-0.378209 0.775054 0.000000
-0.355534 0.781743 0.000000
-0.332671 0.788010 0.000000
-0.309635 0.793855 0.000000
-0.286438 0.799276 0.000000
-0.263092 0.804271 0.000000
-0.239609 0.808840 0.000000
-0.216002 0.812980 0.000000
-0.192283 0.816690 0.000000
-0.168465 0.819969 0.000000
-0.144560 0.822815 0.000000
-0.120580 0.825227 0.000000
-0.096539 0.827204 0.000000
-0.072447 0.828744 0.000000
-0.048319 0.829846 0.000000
-0.024166 0.830508 0.000000
0.000000 0.830729 0.000000
0.024166 0.830508 0.000000
0.048319 0.829846 0.000000
0.072447 0.828744 0.000000
0.096539 0.827204 0.000000
0.120580 0.825227 0.000000
0.144560 0.822815 0.000000
0.168465 0.819969 0.000000
0.192283 0.816690 0.000000
0.216002 0.812980 0.000000
0.239609 0.808840 0.000000
0.263092 0.804271 0.000000
0.286438 0.799276 0.000000
0.309635 0.793855 0.000000
0.332671 0.788010 0.000000
0.355533 0.781743 0.000000
0.378209 0.775054 0.000000
0.400688 0.767946 0.000000
0.422960 0.760425 0.000000
0.445021 0.752498 0.000000
0.466861 0.744172 0.000000
0.488476 0.735453 0.000000
0.509857 0.726349 0.000000
0.530998 0.716867 0.000000
0.551892 0.707013 0.000000
0.572538 0.696801 0.000000
0.592962 0.686270 0.000000
0.613195 0.675465 0.000000
0.633270 0.664433 0.000000
0.653218 0.653218 0.000000
0.673070 0.641866 0.000000
0.692859 0.630423 0.000000
-0.680095 0.648863 0.000000
-0.661017 0.661017 0.000000
-0.641866 0.673070 0.000000
-0.622606 0.684971 0.000000
-0.603201 0.696670 0.000000
-0.583614 0.708115 0.000000
-0.563809 0.719257 0.000000
-0.543750 0.730045 0.000000
-0.523408 0.740434 0.000000
-0.502785 0.750415 0.000000
-0.481890 0.759981 0.000000
-0.460734 0.769127 0.000000
-0.439326 0.777850 0.000000
-0.417675 0.786144 0.000000
-0.395791 0.794006 0.000000
-0.373684 0.801429 0.000000
-0.351364 0.808410 0.000000
-0.328844 0.814948 0.000000
-0.306136 0.821041 0.000000
-0.283255 0.826689 0.000000
-0.260214 0.831891 0.000000
-0.237025 0.836645 0.000000
-0.213704 0.840951 0.000000
-0.190261 0.844808 0.000000
-0.166713 0.848214 0.000000
-0.143070 0.851169 0.000000
-0.119347 0.853673 0.000000
-0.095558 0.855723 0.000000
-0.071715 0.857319 0.000000
-0.047832 0.858461 0.000000
-0.023923 0.859146 0.000000
0.000000 0.859375 0.000000
0.023923 0.859146 0.000000
0.047832 0.858461 0.000000
0.071715 0.857319 0.000000
0.095558 0.855723 0.000000
0.119347 0.853673 0.000000
0.143070 0.851170 0.000000
0.166712 0.848214 0.000000
0.190261 0.844808 0.000000
0.213704 0.840951 0.000000
0.237025 0.836645 0.000000
0.260214 0.831891 0.000000
0.283255 0.826689 0.000000
0.306136 0.821041 0.000000
0.328844 0.814948 0.000000
0.351364 0.808410 0.000000
0.373684 0.801429 0.000000
0.395791 0.794006 0.000000
0.417675 0.786144 0.000000
0.439326 0.777850 0.000000
0.460734 0.769127 0.000000
0.481890 0.759980 0.000000
0.502785 0.750415 0.000000
0.523408 0.740435 0.000000
0.543750 0.730045 0.000000
0.563809 0.719257 0.000000
0.583614 0.708115 0.000000
0.603201 0.696670 0.000000
0.622606 0.684971 0.000000
0.641866 0.673070 0.000000
0.661017 0.661017 0.000000
0.680095 0.648863 0.000000
-0.667220 0.667220 0.000000
-0.648863 0.680095 0.000000
-0.630423 0.692859 0.000000
-0.611861 0.705455 0.000000
-0.593134 0.717828 0.000000
-0.574202 0.729922 0.000000
-0.555024 0.741681 0.000000
-0.535559 0.753050 0.000000
-0.515775 0.763981 0.000000
-0.495675 0.774463 0.000000
-0.475271 0.784494 0.000000
-0.454577 0.794072 0.000000
-0.433604 0.803193 0.000000
-0.412365 0.811857 0.000000
-0.390873 0.820059 0.000000
-0.369139 0.827799 0.000000
-0.347176 0.835074 0.000000
-0.324999 0.841882 0.000000
-0.302622 0.848225 0.000000
-0.280059 0.854100 0.000000
-0.257324 0.859509 0.000000
-0.234431 0.864449 0.000000
-0.211396 0.868921 0.000000
-0.188232 0.872925 0.000000
-0.164953 0.876459 0.000000
-0.141574 0.879524 0.000000
-0.118110 0.882118 0.000000
-0.094574 0.884242 0.000000
-0.070980 0.885894 0.000000
-0.047344 0.887075 0.000000
-0.023679 0.887784 0.000000
0.000000 0.888021 0.000000
0.023679 0.887784 0.000000
0.047344 0.887075 0.000000
0.070980 0.885894 0.000000
0.094574 0.884242 0.000000
0.118110 0.882118 0.000000
0.141574 0.879524 0.000000
0.164953 0.876459 0.000000
0.188232 0.872925 0.000000
0.211396 0.868921 0.000000
0.234431 0.864449 0.000000
0.257324 0.859509 0.000000
0.280059 0.854100 0.000000
0.302622 0.848225 0.000000
0.324999 0.841882 0.000000
0.347176 0.835074 0.000000
0.369139 0.827799 0.000000
0.390873 0.820059 0.000000
0.412365 0.811857 0.000000
0.433604 0.803193 0.000000
0.454577 0.794072 0.000000
0.475271 0.784494 0.000000
0.495675 0.774463 0.000000
0.515775 0.763981 0.000000
0.535559 0.753050 0.000000
0.555024 0.741681 0.000000
0.574202 0.729922 0.000000
0.593134 0.717828 0.000000
0.611861 0.705455 0.000000
0.630423 0.692859 0.000000
0.648863 0.680095 0.000000
0.667220 0.667220 0.000000
0.000000 1.000000 0.000000
-0.500000 0.866025 0.000000
-0.866025 0.500000 0.000000
-1.000000 0.000000 0.000000
-0.866025 -0.500000 0.000000
-0.500000 -0.866025 0.000000
0.000000 -1.000000 0.000000
0.500000 -0.866025 0.000000
0.866025 -0.500000 0.000000
1.000000 0.000000 0.000000
0.866025 0.500000 0.000000
0.500000 0.866025 0.000000
0.218750 -0.382812 0.082031
-0.218750 -0.382812 0.082031
0.250000 -0.343750 0.046875
-0.250000 -0.343750 0.046875
0.273438 -0.289062 0.027344
-0.273438 -0.289062 0.027344
0.175781 -0.308594 -0.011719
-0.175781 -0.308594 -0.011719
0.175781 -0.359375 0.015625
-0.175781 -0.359375 0.015625
0.175781 -0.390625 0.066406
-0.175781 -0.390625 0.066406
0.136719 -0.398438 0.082031
-0.136719 -0.398438 0.082031
0.101562 -0.371094 0.046875
-0.101562 -0.371094 0.046875
0.078125 -0.324219 0.027344
-0.078125 -0.324219 0.027344
0.039062 -0.328125 0.121094
-0.039062 -0.328125 0.121094
0.070312 -0.371094 0.121094
-0.070312 -0.371094 0.121094
0.121094 -0.398438 0.121094
-0.121094 -0.398438 0.121094
0.136719 -0.398438 0.164062
-0.136719 -0.398438 0.164062
0.101562 -0.371094 0.195312
-0.101562 -0.371094 0.195312
0.078125 -0.324219 0.218750
-0.078125 -0.324219 0.218750
0.175781 -0.308594 0.257812
-0.175781 -0.308594 0.257812
0.175781 -0.359375 0.226562
-0.175781 -0.359375 0.226562
0.175781 -0.390625 0.179688
-0.175781 -0.390625 0.179688
0.218750 -0.382812 0.164062
-0.218750 -0.382812 0.164062
0.250000 -0.343750 0.195312
-0.250000 -0.343750 0.195312
0.273438 -0.289062 0.218750
-0.273438 -0.289062 0.218750
0.312500 -0.281250 0.121094
-0.312500 -0.281250 0.121094
0.281250 -0.335938 0.121094
-0.281250 -0.335938 0.121094
0.234375 -0.378906 0.121094
-0.234375 -0.378906 0.121094
0.238281 -0.386719 0.121094
-0.238281 -0.386719 0.121094
0.222656 -0.390625 0.167969
-0.222656 -0.390625 0.167969
0.175781 -0.402344 0.187500
-0.175781 -0.402344 0.187500
0.132812 -0.410156 0.167969
-0.132812 -0.410156 0.167969
0.113281 -0.410156 0.121094
-0.113281 -0.410156 0.121094
0.132812 -0.410156 0.078125
-0.132812 -0.410156 0.078125
0.175781 -0.414062 0.121094
-0.175781 -0.414062 0.121094
0.175781 -0.402344 0.058594
-0.175781 -0.402344 0.058594
0.222656 -0.390625 0.078125
-0.222656 -0.390625 0.078125
0.000000 -0.371094 0.214844
0.000000 -0.410156 0.175781
0.000000 -0.367188 -0.339844
0.000000 -0.390625 -0.160156
0.000000 -0.398438 -0.093750
0.000000 -0.359375 -0.386719
0.000000 -0.300781 0.203125
0.000000 -0.285156 0.285156
0.000000 0.273438 0.449219
0.000000 0.425781 0.281250
0.000000 0.414062 0.035156
0.000000 0.175781 -0.191406
0.101562 -0.281250 -0.093750
-0.101562 -0.281250 -0.093750
0.156250 -0.285156 -0.218750
-0.156250 -0.285156 -0.218750
0.175781 -0.285156 -0.347656
-0.175781 -0.285156 -0.347656
0.183594 -0.265625 -0.445312
-0.183594 -0.265625 -0.445312
0.164062 -0.261719 -0.472656
-0.164062 -0.261719 -0.472656
0.089844 -0.277344 -0.484375
-0.089844 -0.277344 -0.484375
0.000000 -0.289062 -0.492188
0.218750 -0.265625 -0.070312
-0.218750 -0.265625 -0.070312
0.316406 -0.269531 -0.019531
-0.316406 -0.269531 -0.019531
0.414062 -0.222656 0.074219
-0.414062 -0.222656 0.074219
0.429688 -0.296875 0.214844
-0.429688 -0.296875 0.214844
0.355469 -0.312500 0.242188
-0.355469 -0.312500 0.242188
0.246094 -0.343750 0.300781
-0.246094 -0.343750 0.300781
0.160156 -0.367188 0.378906
-0.160156 -0.367188 0.378906
0.078125 -0.378906 0.359375
-0.078125 -0.378906 0.359375
0.031250 -0.375000 0.246094
-0.031250 -0.375000 0.246094
0.082031 -0.386719 0.207031
-0.082031 -0.386719 0.207031
0.062500 -0.382812 0.152344
-0.062500 -0.382812 0.152344
0.101562 -0.371094 0.046875
-0.101562 -0.371094 0.046875
0.187500 -0.351562 0.007812
-0.187500 -0.351562 0.007812
0.246094 -0.335938 0.031250
-0.246094 -0.335938 0.031250
0.312500 -0.324219 0.093750
-0.312500 -0.324219 0.093750
0.320312 -0.324219 0.148438
-0.320312 -0.324219 0.148438
0.300781 -0.332031 0.187500
-0.300781 -0.332031 0.187500
0.214844 -0.359375 0.218750
-0.214844 -0.359375 0.218750
0.125000 -0.378906 0.234375
-0.125000 -0.378906 0.234375
0.000000 -0.367188 -0.382812
0.054688 -0.367188 -0.359375
-0.054688 -0.367188 -0.359375
0.058594 -0.355469 -0.417969
-0.058594 -0.355469 -0.417969
0.031250 -0.347656 -0.441406
-0.031250 -0.347656 -0.441406
0.000000 -0.343750 -0.445312
0.000000 -0.375000 -0.097656
0.000000 -0.371094 -0.070312
0.050781 -0.371094 -0.074219
-0.050781 -0.371094 -0.074219
0.062500 -0.375000 -0.113281
-0.062500 -0.375000 -0.113281
0.042969 -0.371094 -0.144531
-0.042969 -0.371094 -0.144531
0.199219 -0.335938 -0.023438
-0.199219 -0.335938 -0.023438
0.308594 -0.312500 0.027344
-0.308594 -0.312500 0.027344
0.363281 -0.300781 0.101562
-0.363281 -0.300781 0.101562
0.371094 -0.328125 0.187500
-0.371094 -0.328125 0.187500
0.343750 -0.363281 0.207031
-0.343750 -0.363281 0.207031
0.218750 -0.398438 0.273438
-0.218750 -0.398438 0.273438
0.156250 -0.417969 0.320312
-0.156250 -0.417969 0.320312
0.101562 -0.425781 0.308594
-0.101562 -0.425781 0.308594
0.050781 -0.421875 0.214844
-0.050781 -0.421875 0.214844
0.062500 -0.406250 -0.050781
-0.062500 -0.406250 -0.050781
0.105469 -0.355469 -0.222656
-0.105469 -0.355469 -0.222656
0.125000 -0.343750 -0.351562
-0.125000 -0.343750 -0.351562
0.132812 -0.332031 -0.410156
-0.132812 -0.332031 -0.410156
0.117188 -0.316406 -0.457031
-0.117188 -0.316406 -0.457031
0.082031 -0.316406 -0.464844
-0.082031 -0.316406 -0.464844
0.000000 -0.320312 -0.472656
0.000000 -0.363281 0.023438
0.000000 -0.382812 0.105469
0.164062 -0.371094 0.238281
-0.164062 -0.371094 0.238281
0.082031 -0.375000 0.070312
-0.082031 -0.375000 0.070312
0.066406 -0.378906 0.105469
-0.066406 -0.378906 0.105469
0.058594 -0.367188 -0.343750
-0.058594 -0.367188 -0.343750
0.039062 -0.375000 -0.222656
-0.039062 -0.375000 -0.222656
0.000000 -0.375000 -0.222656
0.000000 -0.371094 -0.164062
0.046875 -0.390625 -0.136719
-0.046875 -0.390625 -0.136719
0.066406 -0.398438 -0.113281
-0.066406 -0.398438 -0.113281
0.054688 -0.390625 -0.066406
-0.054688 -0.390625 -0.066406
0.019531 -0.390625 -0.062500
-0.019531 -0.390625 -0.062500
0.000000 -0.414062 -0.101562
0.023438 -0.406250 -0.074219
-0.023438 -0.406250 -0.074219
0.046875 -0.406250 -0.078125
-0.046875 -0.406250 -0.078125
0.054688 -0.414062 -0.113281
-0.054688 -0.414062 -0.113281
0.039062 -0.402344 -0.125000
-0.039062 -0.402344 -0.125000
0.000000 -0.402344 -0.144531
0.128906 -0.277344 -0.156250
-0.128906 -0.277344 -0.156250
0.082031 -0.355469 -0.121094
-0.082031 -0.355469 -0.121094
0.089844 -0.355469 -0.156250
-0.089844 -0.355469 -0.156250
0.117188 -0.277344 -0.125000
-0.117188 -0.277344 -0.125000
0.000000 -0.343750 -0.437500
0.023438 -0.343750 -0.433594
-0.023438 -0.343750 -0.433594
0.046875 -0.355469 -0.410156
-0.046875 -0.355469 -0.410156
0.046875 -0.363281 -0.371094
-0.046875 -0.363281 -0.371094
0.000000 -0.328125 -0.390625
0.046875 -0.332031 -0.375000
-0.046875 -0.332031 -0.375000
0.046875 -0.320312 -0.406250
-0.046875 -0.320312 -0.406250
0.023438 -0.316406 -0.425781
-0.023438 -0.316406 -0.425781
0.000000 -0.316406 -0.429688
0.085938 -0.390625 0.109375
-0.085938 -0.390625 0.109375
0.093750 -0.386719 0.078125
-0.093750 -0.386719 0.078125
0.167969 -0.378906 0.214844
-0.167969 -0.378906 0.214844
0.136719 -0.386719 0.210938
-0.136719 -0.386719 0.210938
0.210938 -0.386719 0.199219
-0.210938 -0.386719 0.199219
0.281250 -0.347656 0.175781
-0.281250 -0.347656 0.175781
0.292969 -0.343750 0.144531
-0.292969 -0.343750 0.144531
0.289062 -0.339844 0.097656
-0.289062 -0.339844 0.097656
0.238281 -0.359375 0.050781
-0.238281 -0.359375 0.050781
0.187500 -0.371094 0.031250
-0.187500 -0.371094 0.031250
0.113281 -0.390625 0.054688
-0.113281 -0.390625 0.054688
0.089844 -0.390625 0.148438
-0.089844 -0.390625 0.148438
0.105469 -0.390625 0.187500
-0.105469 -0.390625 0.187500
0.117188 -0.378906 0.179688
-0.117188 -0.378906 0.179688
0.097656 -0.378906 0.148438
-0.097656 -0.378906 0.148438
0.121094 -0.378906 0.062500
-0.121094 -0.378906 0.062500
0.187500 -0.363281 0.042969
-0.187500 -0.363281 0.042969
0.230469 -0.351562 0.058594
-0.230469 -0.351562 0.058594
0.273438 -0.335938 0.105469
-0.273438 -0.335938 0.105469
0.277344 -0.335938 0.140625
-0.277344 -0.335938 0.140625
0.265625 -0.339844 0.167969
-0.265625 -0.339844 0.167969
0.207031 -0.375000 0.195312
-0.207031 -0.375000 0.195312
0.140625 -0.382812 0.199219
-0.140625 -0.382812 0.199219
0.167969 -0.375000 0.203125
-0.167969 -0.375000 0.203125
0.101562 -0.375000 0.085938
-0.101562 -0.375000 0.085938
0.097656 -0.375000 0.113281
-0.097656 -0.375000 0.113281
0.054688 -0.304688 0.230469
-0.054688 -0.304688 0.230469
0.097656 -0.308594 0.332031
-0.097656 -0.308594 0.332031
0.167969 -0.296875 0.343750
-0.167969 -0.296875 0.343750
0.242188 -0.277344 0.277344
-0.242188 -0.277344 0.277344
0.339844 -0.246094 0.226562
-0.339844 -0.246094 0.226562
0.398438 -0.230469 0.203125
-0.398438 -0.230469 0.203125
0.386719 -0.187500 0.082031
-0.386719 -0.187500 0.082031
0.300781 -0.207031 0.000000
-0.300781 -0.207031 0.000000
0.218750 -0.234375 -0.046875
-0.218750 -0.234375 -0.046875
0.000000 -0.144531 0.449219
0.000000 0.039062 0.492188
0.000000 0.335938 -0.097656
0.000000 -0.093750 -0.230469
0.000000 -0.230469 -0.488281
0.000000 -0.171875 -0.402344
0.000000 -0.160156 -0.285156
0.000000 -0.140625 -0.242188
0.425781 -0.027344 0.117188
-0.425781 -0.027344 0.117188
0.429688 0.023438 0.160156
-0.429688 0.023438 0.160156
0.386719 0.218750 0.132812
-0.386719 0.218750 0.132812
0.230469 0.351562 0.218750
-0.230469 0.351562 0.218750
0.367188 -0.035156 -0.023438
-0.367188 -0.035156 -0.023438
0.296875 0.082031 -0.062500
-0.296875 0.082031 -0.062500
0.320312 0.214844 -0.003906
-0.320312 0.214844 -0.003906
0.167969 0.332031 0.027344
-0.167969 0.332031 0.027344
0.117188 -0.203125 -0.175781
-0.117188 -0.203125 -0.175781
0.089844 -0.128906 -0.207031
-0.089844 -0.128906 -0.207031
0.144531 -0.191406 -0.355469
-0.144531 -0.191406 -0.355469
0.125000 -0.195312 -0.250000
-0.125000 -0.195312 -0.250000
0.164062 -0.199219 -0.457031
-0.164062 -0.199219 -0.457031
0.070312 -0.183594 -0.378906
-0.070312 -0.183594 -0.378906
0.062500 -0.179688 -0.269531
-0.062500 -0.179688 -0.269531
0.082031 -0.218750 -0.472656
-0.082031 -0.218750 -0.472656
0.109375 -0.214844 -0.140625
-0.109375 -0.214844 -0.140625
0.105469 -0.234375 -0.113281
-0.105469 -0.234375 -0.113281
0.101562 -0.250000 -0.085938
-0.101562 -0.250000 -0.085938
0.105469 -0.082031 -0.195312
-0.105469 -0.082031 -0.195312
0.148438 0.132812 -0.156250
-0.148438 0.132812 -0.156250
0.171875 0.269531 -0.074219
-0.171875 0.269531 -0.074219
0.226562 0.191406 0.433594
-0.226562 0.191406 0.433594
0.226562 0.035156 0.464844
-0.226562 0.035156 0.464844
0.226562 -0.117188 0.425781
-0.226562 -0.117188 0.425781
0.230469 -0.214844 0.261719
-0.230469 -0.214844 0.261719
0.363281 -0.167969 0.203125
-0.363281 -0.167969 0.203125
0.316406 -0.140625 0.226562
-0.316406 -0.140625 0.226562
0.320312 -0.027344 0.351562
-0.320312 -0.027344 0.351562
0.398438 -0.062500 0.281250
-0.398438 -0.062500 0.281250
0.398438 0.058594 0.308594
-0.398438 0.058594 0.308594
0.320312 0.097656 0.375000
-0.320312 0.097656 0.375000
0.320312 0.222656 0.339844
-0.320312 0.222656 0.339844
0.398438 0.179688 0.269531
-0.398438 0.179688 0.269531
0.308594 0.292969 0.164062
-0.308594 0.292969 0.164062
0.242188 0.273438 0.011719
-0.242188 0.273438 0.011719
0.410156 0.101562 0.164062
-0.410156 0.101562 0.164062
0.203125 -0.074219 -0.085938
-0.203125 -0.074219 -0.085938
0.214844 0.105469 -0.097656
-0.214844 0.105469 -0.097656
0.445312 0.117188 0.203125
-0.445312 0.117188 0.203125
0.386719 0.062500 -0.070312
-0.386719 0.062500 -0.070312
0.519531 0.164062 -0.050781
-0.519531 0.164062 -0.050781
0.640625 0.214844 0.027344
-0.640625 0.214844 0.027344
0.675781 0.210938 0.160156
-0.675781 0.210938 0.160156
0.617188 0.210938 0.253906
-0.617188 0.210938 0.253906
0.511719 0.156250 0.238281
-0.511719 0.156250 0.238281
0.507812 0.144531 0.207031
-0.507812 0.144531 0.207031
0.593750 0.195312 0.218750
-0.593750 0.195312 0.218750
0.632812 0.203125 0.144531
-0.632812 0.203125 0.144531
0.605469 0.203125 0.039062
-0.605469 0.203125 0.039062
0.515625 0.152344 -0.019531
-0.515625 0.152344 -0.019531
0.414062 0.066406 -0.035156
-0.414062 0.066406 -0.035156
0.460938 0.109375 0.179688
-0.460938 0.109375 0.179688
0.472656 0.144531 0.152344
-0.472656 0.144531 0.152344
0.441406 0.105469 -0.011719
-0.441406 0.105469 -0.011719
0.519531 0.183594 0.000000
-0.519531 0.183594 0.000000
0.593750 0.222656 0.046875
-0.593750 0.222656 0.046875
0.617188 0.222656 0.125000
-0.617188 0.222656 0.125000
0.585938 0.218750 0.179688
-0.585938 0.218750 0.179688
0.511719 0.179688 0.171875
-0.511719 0.179688 0.171875
0.421875 0.105469 0.144531
-0.421875 0.105469 0.144531
0.417969 0.136719 0.085938
-0.417969 0.136719 0.085938
0.378906 0.136719 0.046875
-0.378906 0.136719 0.046875
